ply
format ascii 1.0
element vertex 167
property float x
property float y
property float z
property uchar red
property uchar green
property uchar blue
end_header
8.00958 2.99108 -159.662 0 255 0
7.97547 3.44202 -158.522 0 255 0
7.50655 3.28664 -158.327 0 255 0
7.25754 2.82154 -156.92 0 255 0
6.77486 2.75011 -156.51 0 255 0
6.44522 1.61931 -156.37 0 255 0
6.97951 2.46856 -155.869 0 255 0
6.55081 2.6793 -155.811 0 255 0
6.9324 3.31239 -155.312 0 255 0
7.09488 3.60704 -155.355 0 255 0
8.51911 3.58963 -155.011 0 255 0
9.82697 3.55479 -155.019 0 255 0
11.5701 4.02298 -154.841 0 255 0
12.8946 6.4382 -154.967 0 255 0
13.9503 5.79273 -155.423 0 255 0
12.4502 6.18726 -154.898 0 255 0
11.8211 7.79106 -155.407 0 255 0
11.2922 6.85465 -156.477 0 255 0
10.687 5.80809 -156.659 0 255 0
10.1951 6.1593 -156.202 0 255 0
9.56481 5.65527 -156.627 0 255 0
9.5774 5.03964 -156.336 0 255 0
9.34401 5.35741 -156.449 0 255 0
9.4508 5.91666 -156.558 0 255 0
9.36123 6.17015 -157.16 0 255 0
9.43777 5.41837 -157.45 0 255 0
9.94916 5.04531 -157.475 0 255 0
10.8704 4.57896 -157.094 0 255 0
10.2616 4.38343 -157.141 0 255 0
9.3688 4.83683 -156.855 0 255 0
9.69352 5.32071 -156.819 0 255 0
9.2268 5.87532 -157.163 0 255 0
11.0198 5.99968 -158.224 0 255 0
11.8127 6.43788 -157.565 0 255 0
12.5405 7.46997 -157.178 0 255 0
12.7374 7.2978 -156.934 0 255 0
12.3933 7.11101 -156.725 0 255 0
12.1749 8.81286 -156.636 0 255 0
11.9358 8.69548 -157.011 0 255 0
12.4268 8.12618 -157.736 0 255 0
11.6453 7.85987 -157.611 0 255 0
12.0084 7.25462 -157.609 0 255 0
11.7414 7.68187 -157.54 0 255 0
12.1424 7.74597 -157.36 0 255 0
11.7414 8.86009 -157.072 0 255 0
11.8036 8.65453 -158.332 0 255 0
12.0189 7.19225 -158.858 0 255 0
11.5258 8.64845 -158.672 0 255 0
12.0971 8.81698 -158.512 0 255 0
13.4142 6.26272 -157.545 0 255 0
12.9364 6.33773 -157.374 0 255 0
11.8009 6.34769 -157.641 0 255 0
11.5063 6.01667 -157.599 0 255 0
10.0463 4.56206 -157.763 0 255 0
9.02294 4.58816 -157.734 0 255 0
8.62045 5.54765 -157.717 0 255 0
7.40049 5.76477 -158.327 0 255 0
7.64731 6.39839 -157.599 0 255 0
8.41737 6.90571 -157.658 0 255 0
8.53335 8.32943 -157.481 0 255 0
8.64777 8.53641 -157.993 0 255 0
8.41362 8.40524 -158.175 0 255 0
9.30022 8.80305 -157.805 0 255 0
9.1745 8.0332 -157.76 0 255 0
9.20822 8.19146 -157.543 0 255 0
7.66467 8.686 -157.223 0 255 0
7.16815 9.22498 -157.24 0 255 0
5.25936 10.0843 -157.526 0 255 0
5.23792 9.36354 -157.873 0 255 0
4.96284 7.27328 -157.17 0 255 0
4.77153 6.76868 -157.039 0 255 0
4.97965 6.39059 -156.941 0 255 0
4.67845 6.73694 -156.608 0 255 0
5.07742 6.32229 -156.501 0 255 0
5.46572 6.06967 -156.275 0 255 0
6.36502 5.85614 -156.224 0 255 0
6.21468 6.03359 -156.052 0 255 0
7.09333 5.60375 -156.581 0 255 0
7.2137 6.154 -156.525 0 255 0
6.98897 6.5245 -156.8 0 255 0
6.58217 6.25833 -156.599 0 255 0
6.95902 6.39667 -156.174 0 255 0
28.6334 -16.4614 479.879 221 212 197
27.4359 25.5888 471.941 215 204 184
93.2196 51.1054 414.368 200 189 167
194.501 65.5819 464.909 185 174 152
62.2612 57.7655 442.37 208 196 174
26.7027 60.7868 466.418 211 200 180
29.0021 -55.371 482.348 224 214 204
-384.935 383.561 822.089 195 194 190
-413.869 365.337 820.882 191 188 183
136.401 51.9598 417.4 196 185 163
164.94 60.2443 442.252 193 182 160
-65.1769 231.632 947.426 209 209 207
194.487 -12.455 480.248 219 207 191
106.29 58.1767 443.66 200 187 168
76.4012 64.6981 469.311 207 195 173
-35.366 221.616 951.831 209 209 209
79.2567 45.9576 417.881 206 195 173
58.9693 20.4421 446.808 206 195 177
-72.938 206.745 951.921 211 213 210
-214.42 -8.81894 381.871 57 56 54
60.489 9.75518 448.79 209 198 176
89.9945 65.7665 461.597 205 193 171
89.5117 14.0146 419.644 201 190 168
-396.202 338.343 821.583 193 190 185
49.5314 23.0363 454.828 209 198 178
120.636 58.7477 437.611 204 189 170
82.4346 5.3729 427.925 198 187 165
147.145 67.4469 466.066 198 186 164
-42.5464 198.935 962.082 209 210 212
93.1374 -37.313 427.874 225 212 203
48.2093 52.5917 445.259 204 196 173
80.1646 16.0829 425.601 204 189 168
51.0308 -17.8008 459.714 220 210 198
110.65 39.2971 392.77 199 187 165
-368.254 357.478 827.18 193 189 186
61.1386 -60.6593 457.416 224 214 202
83.6865 -35.2084 432.781 222 213 198
60.5177 -20.2928 450.729 223 211 197
116.236 -41.4401 410.631 221 213 200
111.213 9.38079 399.973 206 194 172
134.849 66.1384 467.172 202 187 168
91.2845 2.91437 422.109 206 191 170
83.0075 -24.2608 433.536 219 211 198
114.154 -1.48483 403.112 222 213 198
51.513 -28.9602 462.234 222 212 200
61.0018 -31.3332 453.492 224 215 200
114.254 -30.9368 407.071 222 214 201
-178.018 -8.83625 392.049 134 127 119
91.2911 -26.956 424.322 222 213 198
116.367 -70.3155 413.042 222 213 198
194.845 27.1646 471.989 190 178 156
116.73 73.1984 486.849 201 189 167
93.6736 -66.8267 434.422 223 215 202
51.8284 -58.025 464.791 223 214 199
-102.095 -9.41343 661.55 202 203 198
-177.986 -25.4894 390.342 209 208 206
-218.411 -49.8755 307.635 203 200 195
132.126 79.6524 517.038 198 186 164
83.9852 -64.4589 438.902 225 217 204
50.4518 11.9119 453.772 208 195 176
103.306 72.3908 492.444 200 188 166
25.5787 60.666 586.943 212 199 180
22.9766 -126.712 248.347 225 218 202
-138.186 -15.1266 643.431 191 195 196
-206.763 -84.0624 336.474 204 201 196
-208.054 -40.4418 330.326 207 204 199
-128.577 -6.46145 667.228 196 198 195
-181.984 -29.9232 380.517 201 200 196
-293.777 0.235867 412.203 181 177 166
-188.823 -87.0647 370.902 208 205 200
-11.7501 -122.282 261.488 214 214 212
-211.567 -100.886 327.518 200 197 192
-424.927 418.962 949.018 189 185 182
-241.556 -4.0678 385.655 240 240 230
-549.151 470.424 1150.72 197 192 188
14.7789 -132.224 229.397 224 215 200
-227.799 -5.65485 380.992 72 73 68
-246.52 -86.5143 308.667 210 202 183
177.676 -25.2466 464.61 221 214 198
-234.841 -20.9619 336.409 196 191 185
-238.828 -25.0202 317.754 198 194 185
-372.242 349.619 752.57 195 190 186
-106.749 -15.817 621.001 212 212 212
-211.788 -82.0823 324.358 202 199 192
41.0641 -60.4202 481.473 226 217 202
